680
2.213557720184326,4.473669052124023,6.375010013580322,255,255,255,255
2.288611888885498,4.482648849487305,6.38817024230957,255,255,255,255
2.284548282623291,4.519455909729004,6.442115783691406,255,255,255,255
2.280662775039673,4.5562639236450195,6.4960618019104,255,255,255,255
2.2774887084960938,4.593071937561035,6.5500078201293945,255,255,255,255
2.2754976749420166,4.629879951477051,6.603953838348389,255,255,255,255
2.213557720184326,4.629879951477051,6.603953838348389,255,255,255,255
2.151618003845215,4.629879951477051,6.603953838348389,255,255,255,255
2.0896780490875244,4.629879951477051,6.603953838348389,255,255,255,255
2.087143898010254,4.593071937561035,6.5500078201293945,255,255,255,255
2.0848841667175293,4.5562639236450195,6.4960618019104,255,255,255,255
2.0827934741973877,4.519455909729004,6.442115783691406,255,255,255,255
2.2754976749420166,4.493046760559082,6.433180809020996,255,255,255,255
2.3374366760253906,4.493046760559082,6.433180809020996,255,255,255,255
2.399376630783081,4.493046760559082,6.433180809020996,255,255,255,255
2.4613163471221924,4.493046760559082,6.433180809020996,255,255,255,255
2.4613163471221924,4.534876823425293,6.4753007888793945,255,255,255,255
2.4613163471221924,4.5767059326171875,6.517419815063477,255,255,255,255
2.4613163471221924,4.618535995483398,6.559539794921875,255,255,255,255
2.399376630783081,4.618535995483398,6.559539794921875,255,255,255,255
2.3374366760253906,4.618535995483398,6.559539794921875,255,255,255,255
2.2754976749420166,4.618535995483398,6.559539794921875,255,255,255,255
2.2754976749420166,4.5767059326171875,6.517419815063477,255,255,255,255
2.2754976749420166,4.534876823425293,6.4753007888793945,255,255,255,255
2.4613163471221924,4.476802825927734,6.392570972442627,255,255,255,255
2.523256301879883,4.476395130157471,6.39204216003418,255,255,255,255
2.585195302963257,4.4762468338012695,6.39185094833374,255,255,255,255
2.656790256500244,4.484869003295898,6.403017044067383,255,255,255,255
2.654198169708252,4.520707130432129,6.449435234069824,255,255,255,255
2.6513805389404297,4.556544780731201,6.495852947235107,255,255,255,255
2.6488146781921387,4.592382907867432,6.542270183563232,255,255,255,255
2.6471352577209473,4.627503871917725,6.5871992111206055,255,255,255,255
2.585195302963257,4.6282219886779785,6.588687896728516,255,255,255,255
2.523256301879883,4.6282219886779785,6.588687896728516,255,255,255,255
2.4613163471221924,4.6282219886779785,6.588687896728516,255,255,255,255
2.458507537841797,4.592382907867432,6.542270183563232,255,255,255,255
2.455935478210449,4.556544780731201,6.495852947235107,255,255,255,255
2.45379376411438,4.520707130432129,6.449435234069824,255,255,255,255
2.6471352577209473,4.484796047210693,6.407010078430176,255,255,255,255
2.7090749740600586,4.484796047210693,6.407010078430176,255,255,255,255
2.77101469039917,4.484796047210693,6.407010078430176,255,255,255,255
2.832953929901123,4.484796047210693,6.407010078430176,255,255,255,255
2.8343639373779297,4.532125949859619,6.466577053070068,255,255,255,255
2.8322041034698486,4.5725932121276855,6.528058052062988,255,255,255,255
2.832953929901123,4.626787185668945,6.5857110023498535,255,255,255,255
2.77101469039917,4.626787185668945,6.5857110023498535,255,255,255,255
2.7090749740600586,4.626787185668945,6.5857110023498535,255,255,255,255
2.643740177154541,4.579456806182861,6.526144027709961,255,255,255,255
2.6412911415100098,4.532125949859619,6.466577053070068,255,255,255,255
2.832953929901123,4.486937999725342,6.424537181854248,255,255,255,255
2.8948936462402344,4.484349250793457,6.421939849853516,255,255,255,255
2.9568333625793457,4.483849048614502,6.421439170837402,255,255,255,255
3.0303385257720947,4.494814872741699,6.432435989379883,255,255,255,255
3.026719093322754,4.536510944366455,6.474246978759766,255,255,255,255
3.021446704864502,4.578451156616211,6.5186848640441895,255,255,255,255
3.018773317337036,4.61990213394165,6.557870864868164,255,255,255,255
2.9568333625793457,4.61990213394165,6.557870864868164,255,255,255,255
2.8948936462402344,4.61990213394165,6.557870864868164,255,255,255,255
2.832953929901123,4.61990213394165,6.557870864868164,255,255,255,255
2.8309543132781982,4.578207015991211,6.516058921813965,255,255,255,255
2.8283278942108154,4.536510944366455,6.474246978759766,255,255,255,255
3.018773317337036,4.532641887664795,6.468782901763916,255,255,255,255
2.0277390480041504,4.594956874847412,6.607468128204346,255,255,255,255
2.0974183082580566,4.600988864898682,6.613915920257568,255,255,255,255
2.095651865005493,4.644626140594482,6.660555839538574,255,255,255,255
2.08998703956604,4.6884050369262695,6.70609712600708,255,255,255,255
2.089679002761841,4.726487159729004,6.755956172943115,255,255,255,255
2.0277390480041504,4.731898784637451,6.753836154937744,255,255,255,255
2.0896780490875244,4.595283031463623,6.609210968017578,255,255,255,255
2.151618003845215,4.592389106750488,6.606238842010498,255,255,255,255
2.213557720184326,4.591529846191406,6.605356216430664,255,255,255,255
2.285843849182129,4.603639125823975,6.617793083190918,255,255,255,255
2.2786052227020264,4.6448540687561035,6.659413814544678,255,255,255,255
2.2768445014953613,4.6838698387146,6.712307929992676,255,255,255,255
2.2754976749420166,4.731001853942871,6.748600959777832,255,255,255,255
2.213557720184326,4.731001853942871,6.748600959777832,255,255,255,255
2.151618003845215,4.731001853942871,6.748600959777832,255,255,255,255
2.084425210952759,4.646092891693115,6.661395072937012,255,255,255,255
2.2754976749420166,4.597929000854492,6.604518890380859,255,255,255,255
2.3374366760253906,4.597929000854492,6.604518890380859,255,255,255,255
2.399376630783081,4.590784072875977,6.596243858337402,255,255,255,255
2.4737796783447266,4.597929000854492,6.604518890380859,255,255,255,255
2.469496011734009,4.643614768981934,6.657433032989502,255,255,255,255
2.4615774154663086,4.689211845397949,6.709827899932861,255,255,255,255
2.4613163471221924,4.73461389541626,6.7617878913879395,255,255,255,255
2.399376630783081,4.734988212585449,6.763260841369629,255,255,255,255
2.3374366760253906,4.734988212585449,6.763260841369629,255,255,255,255
2.2754976749420166,4.734988212585449,6.763260841369629,255,255,255,255
2.4613163471221924,4.591222763061523,6.598629951477051,255,255,255,255
2.523256301879883,4.592551231384277,6.600131034851074,255,255,255,255
2.585195302963257,4.591169834136963,6.598568916320801,255,255,255,255
2.65669322013855,4.5988898277282715,6.607296943664551,255,255,255,255
2.6507935523986816,4.6440019607543945,6.658353805541992,255,255,255,255
2.6490278244018555,4.689094066619873,6.709281921386719,255,255,255,255
2.6471352577209473,4.734186172485352,6.760209083557129,255,255,255,255
2.585195302963257,4.734239101409912,6.760313987731934,255,255,255,255
2.523256301879883,4.734239101409912,6.760313987731934,255,255,255,255
2.455000638961792,4.64400577545166,6.658303260803223,255,255,255,255
2.6471352577209473,4.598928928375244,6.607554912567139,255,255,255,255
2.7090749740600586,4.59512186050415,6.603260040283203,255,255,255,255
2.77101469039917,4.5915207862854,6.599196910858154,255,255,255,255
2.8392558097839355,4.598928928375244,6.607554912567139,255,255,255,255
2.8386459350585938,4.6439971923828125,6.65840482711792,255,255,255,255
2.836452007293701,4.689064979553223,6.709255218505859,255,255,255,255
2.832953929901123,4.734131813049316,6.760105133056641,255,255,255,255
2.77101469039917,4.734131813049316,6.760105133056641,255,255,255,255
2.7090749740600586,4.734131813049316,6.760105133056641,255,255,255,255
2.832953929901123,4.586118221282959,6.581173896789551,255,255,255,255
2.8948936462402344,4.584896087646484,6.579615116119385,255,255,255,255
2.9568333625793457,4.585817813873291,6.580790042877197,255,255,255,255
3.0233206748962402,4.595261096954346,6.592836856842041,255,255,255,255
3.0207488536834717,4.630925178527832,6.638333797454834,255,255,255,255
3.016308069229126,4.666563987731934,6.683845043182373,255,255,255,255
3.0175366401672363,4.702171802520752,6.729062080383301,255,255,255,255
3.018773317337036,4.737825870513916,6.7744598388671875,255,255,255,255
2.9568333625793457,4.737916946411133,6.774823188781738,255,255,255,255
2.8948936462402344,4.737916946411133,6.774823188781738,255,255,255,255
2.832953929901123,4.737916946411133,6.774823188781738,255,255,255,255
2.8303375244140625,4.7022528648376465,6.729327201843262,255,255,255,255
2.8277206420898438,4.66658878326416,6.683830261230469,255,255,255,255
2.8251819610595703,4.630925178527832,6.638333797454834,255,255,255,255
3.011235237121582,4.630988121032715,6.6389241218566895,255,255,255,255
2.0277390480041504,4.700809955596924,6.7904510498046875,255,255,255,255
2.099973201751709,4.711598873138428,6.801943778991699,255,255,255,255
2.0956757068634033,4.7551422119140625,6.848331928253174,255,255,255,255
2.0895323753356934,4.798586845397949,6.894769191741943,255,255,255,255
2.089679002761841,4.842115879058838,6.941119194030762,255,255,255,255
2.0277390480041504,4.842227935791016,6.941106796264648,255,255,255,255
2.089679002761841,4.70206880569458,6.792200088500977,255,255,255,255
2.151618003845215,4.70279598236084,6.79297399520874,255,255,255,255
2.213557720184326,4.703339099884033,6.793551921844482,255,255,255,255
2.283287525177002,4.711458206176758,6.8021931648254395,255,255,255,255
2.2819080352783203,4.7549729347229,6.848505020141602,255,255,255,255
2.27901554107666,4.798488140106201,6.89481782913208,255,255,255,255
2.2754976749420166,4.842002868652344,6.9411301612854,255,255,255,255
2.213557720184326,4.842002868652344,6.9411301612854,255,255,255,255
2.151618003845215,4.842002868652344,6.9411301612854,255,255,255,255
2.083430767059326,4.7549729347229,6.848505020141602,255,255,255,255
2.2754976749420166,4.696484088897705,6.758994102478027,255,255,255,255
2.3374366760253906,4.702517986297607,6.767611980438232,255,255,255,255
2.399376630783081,4.702517986297607,6.767611980438232,255,255,255,255
2.4613163471221924,4.6938581466674805,6.770933151245117,255,255,255,255
2.4576687812805176,4.739599227905273,6.822109222412109,255,255,255,255
2.4588024616241455,4.775983810424805,6.8722639083862305,255,255,255,255
2.460069179534912,4.812367916107178,6.92241907119751,255,255,255,255
2.4613163471221924,4.848752021789551,6.9725728034973145,255,255,255,255
2.399376630783081,4.849197864532471,6.9770917892456055,255,255,255,255
2.3374366760253906,4.849197864532471,6.9770917892456055,255,255,255,255
2.2754976749420166,4.849197864532471,6.9770917892456055,255,255,255,255
2.2733070850372314,4.812528133392334,6.924722194671631,255,255,255,255
2.27095627784729,4.775857925415039,6.872352123260498,255,255,255,255
2.2688159942626953,4.739188194274902,6.819982051849365,255,255,255,255
2.523256301879883,4.703910827636719,6.776297092437744,255,255,255,255
2.585195302963257,4.703910827636719,6.776297092437744,255,255,255,255
2.6529927253723145,4.703910827636719,6.776297092437744,255,255,255,255
2.650668144226074,4.740009784698486,6.824236869812012,255,255,255,255
2.6491072177886963,4.776109218597412,6.872176170349121,255,255,255,255
2.648267984390259,4.81220817565918,6.920115947723389,255,255,255,255
2.6471352577209473,4.848307132720947,6.96805477142334,255,255,255,255
2.585195302963257,4.848307132720947,6.96805477142334,255,255,255,255
2.523256301879883,4.848307132720947,6.96805477142334,255,255,255,255
2.6506495475769043,4.696303844451904,6.783080101013184,255,255,255,255
2.7090749740600586,4.698627948760986,6.782970905303955,255,255,255,255
2.77101469039917,4.7001848220825195,6.784740924835205,255,255,255,255
2.8425612449645996,4.708836078643799,6.794573783874512,255,255,255,255
2.835263729095459,4.753398895263672,6.845668792724609,255,255,255,255
2.832953929901123,4.793848991394043,6.902946949005127,255,255,255,255
2.832953929901123,4.8394880294799805,6.955737113952637,255,255,255,255
2.77101469039917,4.844573020935059,6.948849201202393,255,255,255,255
2.7090749740600586,4.844573020935059,6.948849201202393,255,255,255,255
2.6471352577209473,4.844573020935059,6.948849201202393,255,255,255,255
2.6430747509002686,4.799327850341797,6.89742374420166,255,255,255,255
2.6385622024536133,4.754082202911377,6.845998764038086,255,255,255,255
2.832953929901123,4.704522132873535,6.788641929626465,255,255,255,255
2.8948936462402344,4.706683158874512,6.791183948516846,255,255,255,255
2.9568333625793457,4.706683158874512,6.791183948516846,255,255,255,255
3.018773317337036,4.706683158874512,6.791183948516846,255,255,255,255
3.018773317337036,4.752739906311035,6.84408712387085,255,255,255,255
3.018773317337036,4.799294948577881,6.900357246398926,255,255,255,255
3.018773317337036,4.845493793487549,6.955635070800781,255,255,255,255
2.9568333625793457,4.844781875610352,6.953648090362549,255,255,255,255
2.8948936462402344,4.844781875610352,6.953648090362549,255,255,255,255
2.0277390480041504,4.81699275970459,6.99078893661499,255,255,255,255
2.094653844833374,4.824487209320068,6.998226165771484,255,255,255,255
2.094146966934204,4.865840911865234,7.0392680168151855,255,255,255,255
2.089679002761841,4.803738117218018,6.949422836303711,255,255,255,255
2.151618003845215,4.8063178062438965,6.952891826629639,255,255,255,255
2.213557720184326,4.810969829559326,6.959146022796631,255,255,255,255
2.279125690460205,4.813683032989502,6.962793827056885,255,255,255,255
2.274284839630127,4.849662780761719,7.01026725769043,255,255,255,255
2.275134325027466,4.885916233062744,7.0603437423706055,255,255,255,255
2.083853006362915,4.88597297668457,7.060307025909424,255,255,255,255
2.0807249546051025,4.849898815155029,7.011490821838379,255,255,255,255
2.2754976749420166,4.807960033416748,6.950906753540039,255,255,255,255
2.3374366760253906,4.804685115814209,6.946313858032227,255,255,255,255
2.399376630783081,4.803257942199707,6.944314002990723,255,255,255,255
2.473499059677124,4.812874794006348,6.957798004150391,255,255,255,255
2.4705066680908203,4.849425792694092,7.009042739868164,255,255,255,255
2.463768720626831,4.885756969451904,7.060442924499512,255,255,255,255
2.4613163471221924,4.808137893676758,6.9553608894348145,255,255,255,255
2.523256301879883,4.809031009674072,6.956570148468018,255,255,255,255
2.585195302963257,4.8131608963012695,6.962163925170898,255,255,255,255
2.6471352577209473,4.8131608963012695,6.962163925170898,255,255,255,255
2.6471352577209473,4.849442958831787,7.011305809020996,255,255,255,255
2.647258758544922,4.885770797729492,7.060439109802246,255,255,255,255
2.457343816757202,4.849442958831787,7.011305809020996,255,255,255,255
2.6471352577209473,4.812252044677734,6.978631973266602,255,255,255,255
2.7090749740600586,4.815790176391602,6.982522010803223,255,255,255,255
2.77101469039917,4.819659233093262,6.986774921417236,255,255,255,255
2.832953929901123,4.819659233093262,6.986774921417236,255,255,255,255
2.832953929901123,4.862922191619873,7.033484935760498,255,255,255,255
2.6411657333374023,4.864068031311035,7.035603046417236,255,255,255,255
2.832953929901123,4.814640045166016,6.9727091789245605,255,255,255,255
2.8948936462402344,4.814640045166016,6.9727091789245605,255,255,255,255
2.9568333625793457,4.814640045166016,6.9727091789245605,255,255,255,255
3.018773317337036,4.814640045166016,6.9727091789245605,255,255,255,255
3.018773317337036,4.861775875091553,7.031368255615234,255,255,255,255
3.018773317337036,4.84872579574585,7.008833885192871,255,255,255,255
2.0088107585906982,4.212099075317383,5.931423187255859,255,255,255,255
2.006563186645508,4.246941089630127,5.978547096252441,255,255,255,255
2.0040535926818848,4.281783103942871,6.02567195892334,255,255,255,255
2.000807762145996,4.316625118255615,6.072795867919922,255,255,255,255
1.996768832206726,4.351467132568359,6.119919776916504,255,255,255,255
1.996768832206726,4.205212116241455,5.946462154388428,255,255,255,255
2.058708667755127,4.205935001373291,5.947192192077637,255,255,255,255
2.1206483840942383,4.202786922454834,5.94401216506958,255,255,255,255
2.197279691696167,4.214261054992676,5.955603122711182,255,255,255,255
2.1929337978363037,4.259945869445801,6.0017571449279785,255,255,255,255
2.1850340366363525,4.3002028465271,6.055861949920654,255,255,255,255
2.1825873851776123,4.351315975189209,6.094062805175781,255,255,255,255
2.1206483840942383,4.351315975189209,6.094062805175781,255,255,255,255
2.058708667755127,4.351315975189209,6.094062805175781,255,255,255,255
1.996768832206726,4.351315975189209,6.094062805175781,255,255,255,255
2.1825873851776123,4.209886074066162,5.940536022186279,255,255,255,255
2.2445273399353027,4.209886074066162,5.940536022186279,255,255,255,255
2.306467294692993,4.209886074066162,5.940536022186279,255,255,255,255
2.3684070110321045,4.209886074066162,5.940536022186279,255,255,255,255
2.3684070110321045,4.257404804229736,5.997564792633057,255,255,255,255
2.3665194511413574,4.301626205444336,6.057806015014648,255,255,255,255
2.3684070110321045,4.351042747497559,6.113475799560547,255,255,255,255
2.306467294692993,4.352441787719727,6.1116228103637695,255,255,255,255
2.2445273399353027,4.352441787719727,6.1116228103637695,255,255,255,255
2.1825873851776123,4.352441787719727,6.1116228103637695,255,255,255,255
2.1825873851776123,4.257404804229736,5.997564792633057,255,255,255,255
2.3684070110321045,4.192666053771973,5.929226875305176,255,255,255,255
2.4303460121154785,4.195341110229492,5.932056903839111,255,255,255,255
2.492285966873169,4.202270030975342,5.939391136169434,255,255,255,255
2.5542256832122803,4.2059550285339355,5.943291187286377,255,255,255,255
2.5542256832122803,4.257270812988281,5.9976019859313965,255,255,255,255
2.5542256832122803,4.308588027954102,6.051912784576416,255,255,255,255
2.5542256832122803,4.359903812408447,6.106224060058594,255,255,255,255
2.492285966873169,4.359903812408447,6.106224060058594,255,255,255,255
2.4303460121154785,4.359903812408447,6.106224060058594,255,255,255,255
2.3585197925567627,4.257270812988281,5.9976019859313965,255,255,255,255
2.5542256832122803,4.192563056945801,5.921044826507568,255,255,255,255
2.6161656379699707,4.195423126220703,5.924365043640137,255,255,255,255
2.6781046390533447,4.197007179260254,5.926205158233643,255,255,255,255
2.747725009918213,4.202700138092041,5.932814121246338,255,255,255,255
2.7466254234313965,4.2425079345703125,5.9790358543396,255,255,255,255
2.745508909225464,4.282316207885742,6.0252580642700195,255,255,255,255
2.7433619499206543,4.322124004364014,6.071479797363281,255,255,255,255
2.740044355392456,4.361931800842285,6.117701053619385,255,255,255,255
2.6781046390533447,4.361931800842285,6.117701053619385,255,255,255,255
2.6161656379699707,4.361931800842285,6.117701053619385,255,255,255,255
2.5542256832122803,4.361931800842285,6.117701053619385,255,255,255,255
2.5512444972991943,4.322124004364014,6.071479797363281,255,255,255,255
2.5481514930725098,4.282316207885742,6.0252580642700195,255,255,255,255
2.5452752113342285,4.2425079345703125,5.9790358543396,255,255,255,255
2.740044355392456,4.207849979400635,5.928432941436768,255,255,255,255
2.8019843101501465,4.212709903717041,5.934782028198242,255,255,255,255
2.863924264907837,4.218955039978027,5.9429402351379395,255,255,255,255
2.930386543273926,4.212914943695068,5.948495864868164,255,255,255,255
2.927459239959717,4.260459899902344,5.998863220214844,255,255,255,255
2.9253880977630615,4.298550128936768,6.05619478225708,255,255,255,255
2.925863265991211,4.341531753540039,6.109661102294922,255,255,255,255
2.863924264907837,4.345264911651611,6.107950210571289,255,255,255,255
2.8019843101501465,4.345264911651611,6.107950210571289,255,255,255,255
2.740044355392456,4.345264911651611,6.107950210571289,255,255,255,255
2.737262010574341,4.303161144256592,6.052947044372559,255,255,255,255
2.7313284873962402,4.2610578536987305,5.997942924499512,255,255,255,255
2.0161032676696777,4.314671993255615,6.114887237548828,255,255,255,255
2.0110738277435303,4.353601932525635,6.164021015167236,255,255,255,255
2.005615472793579,4.392532825469971,6.2131547927856445,255,255,255,255
2.000711441040039,4.431463241577148,6.262290000915527,255,255,255,255
1.996768832206726,4.470393180847168,6.3114237785339355,255,255,255,255
1.996768832206726,4.313157081604004,6.099379062652588,255,255,255,255
2.058708667755127,4.311233043670654,6.096559047698975,255,255,255,255
2.1206483840942383,4.312045097351074,6.097747802734375,255,255,255,255
2.1925737857818604,4.31789493560791,6.106319904327393,255,255,255,255
2.1895182132720947,4.354630947113037,6.160144805908203,255,255,255,255
2.1866462230682373,4.391366004943848,6.213970184326172,255,255,255,255
2.184415578842163,4.428102016448975,6.267795085906982,255,255,255,255
2.1825873851776123,4.464838027954102,6.321619987487793,255,255,255,255
2.1206483840942383,4.464838027954102,6.321619987487793,255,255,255,255
2.058708667755127,4.464838027954102,6.321619987487793,255,255,255,255
1.996768832206726,4.462564945220947,6.319557189941406,255,255,255,255
2.1825873851776123,4.32335901260376,6.134378910064697,255,255,255,255
2.2445273399353027,4.332117080688477,6.144465923309326,255,255,255,255
2.306467294692993,4.332117080688477,6.144465923309326,255,255,255,255
2.3715171813964844,4.3310370445251465,6.145762920379639,255,255,255,255
2.3705430030822754,4.37298583984375,6.18998384475708,255,255,255,255
2.369241237640381,4.4046430587768555,6.241878986358643,255,255,255,255
2.3684070110321045,4.451933860778809,6.282469749450684,255,255,255,255
2.306467294692993,4.451933860778809,6.282469749450684,255,255,255,255
2.2445273399353027,4.451933860778809,6.282469749450684,255,255,255,255
2.1825873851776123,4.451933860778809,6.282469749450684,255,255,255,255
2.1790637969970703,4.411994934082031,6.23646879196167,255,255,255,255
2.175532341003418,4.372056007385254,6.19046688079834,255,255,255,255
2.3684070110321045,4.339718818664551,6.140117168426514,255,255,255,255
2.4303460121154785,4.339718818664551,6.140117168426514,255,255,255,255
2.492285966873169,4.339718818664551,6.140117168426514,255,255,255,255
2.5542256832122803,4.339718818664551,6.140117168426514,255,255,255,255
2.5542256832122803,4.373916149139404,6.189499855041504,255,255,255,255
2.5542256832122803,4.408113956451416,6.238883972167969,255,255,255,255
2.5542256832122803,4.442310810089111,6.288267135620117,255,255,255,255
2.492285966873169,4.442310810089111,6.288267135620117,255,255,255,255
2.4303460121154785,4.442310810089111,6.288267135620117,255,255,255,255
2.3684070110321045,4.4429030418396,6.289287090301514,255,255,255,255
2.5542256832122803,4.309575080871582,6.121554851531982,255,255,255,255
2.6161656379699707,4.309575080871582,6.121554851531982,255,255,255,255
2.6781046390533447,4.309575080871582,6.121554851531982,255,255,255,255
2.740044355392456,4.309575080871582,6.121554851531982,255,255,255,255
2.740044355392456,4.350295066833496,6.167873859405518,255,255,255,255
2.740044355392456,4.39101505279541,6.214191913604736,255,255,255,255
2.740044355392456,4.431735038757324,6.2605109214782715,255,255,255,255
2.740044355392456,4.472455024719238,6.30682897567749,255,255,255,255
2.6781046390533447,4.472455024719238,6.30682897567749,255,255,255,255
2.6161656379699707,4.472455024719238,6.30682897567749,255,255,255,255
2.5542256832122803,4.472455024719238,6.30682897567749,255,255,255,255
2.5542256832122803,4.431735038757324,6.2605109214782715,255,255,255,255
2.5542256832122803,4.39101505279541,6.214191913604736,255,255,255,255
2.5542256832122803,4.350295066833496,6.167873859405518,255,255,255,255
2.740044355392456,4.317346096038818,6.136977195739746,255,255,255,255
2.8019843101501465,4.325591087341309,6.145389080047607,255,255,255,255
2.863924264907837,4.325591087341309,6.145389080047607,255,255,255,255
2.9277262687683105,4.326021194458008,6.14362096786499,255,255,255,255
2.9297103881835938,4.3699750900268555,6.190670967102051,255,255,255,255
2.925800085067749,4.40715217590332,6.241182804107666,255,255,255,255
2.925863265991211,4.458744049072266,6.281236171722412,255,255,255,255
2.863924264907837,4.458744049072266,6.281236171722412,255,255,255,255
2.8019843101501465,4.458744049072266,6.281236171722412,255,255,255,255
2.740044355392456,4.458744049072266,6.281236171722412,255,255,255,255
2.7380356788635254,4.414360046386719,6.235952854156494,255,255,255,255
2.7345945835113525,4.3699750900268555,6.190670967102051,255,255,255,255
2.925863265991211,4.335779190063477,6.135238170623779,255,255,255,255
2.925863265991211,4.447843074798584,6.28854513168335,255,255,255,255
2.921865940093994,4.374124050140381,6.189314842224121,255,255,255,255
2.016791582107544,4.437534809112549,6.319651126861572,255,255,255,255
2.009714126586914,4.480621814727783,6.3741631507873535,255,255,255,255
2.0022852420806885,4.523707866668701,6.428674221038818,255,255,255,255
1.996768832206726,4.566793918609619,6.483185768127441,255,255,255,255
1.996768832206726,4.4240031242370605,6.2941460609436035,255,255,255,255
2.058708667755127,4.418562889099121,6.286643981933594,255,255,255,255
2.1206483840942383,4.414207935333252,6.280639171600342,255,255,255,255
2.201732635498047,4.429330825805664,6.301492214202881,255,255,255,255
2.1979894638061523,4.465631008148193,6.351551055908203,255,255,255,255
2.1931605339050293,4.501932144165039,6.401608943939209,255,255,255,255
2.184671401977539,4.536948204040527,6.45297908782959,255,255,255,255
2.1825873851776123,4.577465057373047,6.499089241027832,255,255,255,255
2.1206483840942383,4.574533939361572,6.501725196838379,255,255,255,255
2.058708667755127,4.574533939361572,6.501725196838379,255,255,255,255
1.996768832206726,4.574533939361572,6.501725196838379,255,255,255,255
2.1825873851776123,4.414213180541992,6.31535005569458,255,255,255,255
2.2445273399353027,4.414213180541992,6.31535005569458,255,255,255,255
2.306467294692993,4.414213180541992,6.31535005569458,255,255,255,255
2.3684070110321045,4.414213180541992,6.31535005569458,255,255,255,255
2.3684070110321045,4.457539081573486,6.358827114105225,255,255,255,255
2.3684070110321045,4.500865936279297,6.402304172515869,255,255,255,255
2.3684070110321045,4.544192790985107,6.4457807540893555,255,255,255,255
2.3684070110321045,4.587520122528076,6.489258766174316,255,255,255,255
2.306467294692993,4.587520122528076,6.489258766174316,255,255,255,255
2.2445273399353027,4.587520122528076,6.489258766174316,255,255,255,255
2.1825873851776123,4.587520122528076,6.489258766174316,255,255,255,255
2.1825873851776123,4.544192790985107,6.4457807540893555,255,255,255,255
2.1825873851776123,4.500865936279297,6.402304172515869,255,255,255,255
2.1825873851776123,4.457539081573486,6.358827114105225,255,255,255,255
2.3684070110321045,4.436069965362549,6.315378189086914,255,255,255,255
2.4303460121154785,4.429862976074219,6.30728816986084,255,255,255,255
2.492285966873169,4.42888879776001,6.306018829345703,255,255,255,255
2.570002317428589,4.443506240844727,6.325069904327393,255,255,255,255
2.5640132427215576,4.482582092285156,6.375998020172119,255,255,255,255
2.556511878967285,4.522556781768799,6.42799711227417,255,255,255,255
2.5542256832122803,4.56468391418457,6.480225086212158,255,255,255,255
2.492285966873169,4.560733795166016,6.477852821350098,255,255,255,255
2.4303460121154785,4.560733795166016,6.477852821350098,255,255,255,255
2.3684070110321045,4.560733795166016,6.477852821350098,255,255,255,255
2.3643245697021484,4.521657943725586,6.426926136016846,255,255,255,255
2.36125111579895,4.482582092285156,6.375998020172119,255,255,255,255
2.5542256832122803,4.433097839355469,6.322011947631836,255,255,255,255
2.6161656379699707,4.433097839355469,6.322011947631836,255,255,255,255
2.6781046390533447,4.433097839355469,6.322011947631836,255,255,255,255
2.740044355392456,4.4294538497924805,6.318932056427002,255,255,255,255
2.740044355392456,4.478277206420898,6.375539779663086,255,255,255,255
2.740044355392456,4.52345609664917,6.4290690422058105,255,255,255,255
2.740044355392456,4.572278022766113,6.4856767654418945,255,255,255,255
2.6781046390533447,4.568634986877441,6.4825968742370605,255,255,255,255
2.6161656379699707,4.568634986877441,6.4825968742370605,255,255,255,255
2.5542256832122803,4.478277206420898,6.375539779663086,255,255,255,255
2.8019843101501465,4.425809860229492,6.315852165222168,255,255,255,255
2.863924264907837,4.425809860229492,6.315852165222168,255,255,255,255
2.925863265991211,4.425315856933594,6.315429210662842,255,255,255,255
2.925863265991211,4.4633378982543945,6.3590779304504395,255,255,255,255
2.925863265991211,4.500865936279297,6.402304172515869,255,255,255,255
2.925863265991211,4.538393974304199,6.445530891418457,255,255,255,255
2.925863265991211,4.574663162231445,6.4863200187683105,255,255,255,255
2.863924264907837,4.575922012329102,6.488757133483887,255,255,255,255
2.8019843101501465,4.575922012329102,6.488757133483887,255,255,255,255
2.740044355392456,4.538393974304199,6.445530891418457,255,255,255,255
2.740044355392456,4.500865936279297,6.402304172515869,255,255,255,255
2.740044355392456,4.4633378982543945,6.3590779304504395,255,255,255,255
2.9878029823303223,4.4310832023620605,6.322080135345459,255,255,255,255
2.9219255447387695,4.525125026702881,6.428322792053223,255,255,255,255
2.918895721435547,4.478104114532471,6.375201225280762,255,255,255,255
2.0008931159973145,4.545945167541504,6.515903949737549,255,255,255,255
2.0023772716522217,4.589727878570557,6.565247058868408,255,255,255,255
1.9997227191925049,4.6333417892456055,6.6143999099731445,255,255,255,255
1.996768832206726,4.6769561767578125,6.663553237915039,255,255,255,255
1.996768832206726,4.513607978820801,6.486693859100342,255,255,255,255
2.058708667755127,4.51047420501709,6.483480930328369,255,255,255,255
2.1206483840942383,4.510860919952393,6.483878135681152,255,255,255,255
2.1984732151031494,4.52725887298584,6.5006890296936035,255,255,255,255
2.195047378540039,4.570154190063477,6.544665813446045,255,255,255,255
2.1911449432373047,4.613048076629639,6.588642120361328,255,255,255,255
2.1868464946746826,4.655942916870117,6.632617950439453,255,255,255,255
2.1825873851776123,4.698838233947754,6.676593780517578,255,255,255,255
2.1206483840942383,4.698838233947754,6.676593780517578,255,255,255,255
2.058708667755127,4.698838233947754,6.676593780517578,255,255,255,255
1.996768832206726,4.698838233947754,6.676593780517578,255,255,255,255
2.1825873851776123,4.5241379737854,6.488339900970459,255,255,255,255
2.2445273399353027,4.525984764099121,6.490451812744141,255,255,255,255
2.306467294692993,4.5337371826171875,6.499312877655029,255,255,255,255
2.3684070110321045,4.536904811859131,6.5094218254089355,255,255,255,255
2.365595579147339,4.588843822479248,6.561903953552246,255,255,255,255
2.366767644882202,4.629251003265381,6.621878147125244,255,255,255,255
2.3684070110321045,4.686395168304443,6.673826217651367,255,255,255,255
2.306467294692993,4.686395168304443,6.673826217651367,255,255,255,255
2.2445273399353027,4.686395168304443,6.673826217651367,255,255,255,255
2.1825873851776123,4.686395168304443,6.673826217651367,255,255,255,255
2.1760611534118652,4.637053966522217,6.6174211502075195,255,255,255,255
2.169027090072632,4.587711811065674,6.561016082763672,255,255,255,255
2.4303460121154785,4.5478949546813965,6.5079450607299805,255,255,255,255
2.492285966873169,4.544405937194824,6.5033979415893555,255,255,255,255
2.57029390335083,4.5478949546813965,6.5079450607299805,255,255,255,255
2.5643279552459717,4.589975833892822,6.56279182434082,255,255,255,255
2.5563788414001465,4.632017135620117,6.619161128997803,255,255,255,255
2.5542256832122803,4.668535232543945,6.681042194366455,255,255,255,255
2.492285966873169,4.674138069152832,6.672485828399658,255,255,255,255
2.4303460121154785,4.674138069152832,6.672485828399658,255,255,255,255
2.3684070110321045,4.676328182220459,6.677807807922363,255,255,255,255
2.5542256832122803,4.543664932250977,6.492897033691406,255,255,255,255
2.6161656379699707,4.547891139984131,6.499011039733887,255,255,255,255
2.6781046390533447,4.547891139984131,6.499011039733887,255,255,255,255
2.740044355392456,4.547891139984131,6.499011039733887,255,255,255,255
2.740044355392456,4.590885162353516,6.5630998611450195,255,255,255,255
2.739650249481201,4.627534866333008,6.62032413482666,255,255,255,255
2.740044355392456,4.674020767211914,6.681518077850342,255,255,255,255
2.6781046390533447,4.674020767211914,6.681518077850342,255,255,255,255
2.6161656379699707,4.674020767211914,6.681518077850342,255,255,255,255
2.5542256832122803,4.5899338722229,6.559846878051758,255,255,255,255
2.740044355392456,4.549910068511963,6.521317005157471,255,255,255,255
2.8019843101501465,4.5387349128723145,6.509313106536865,255,255,255,255
2.863924264907837,4.533897876739502,6.504117965698242,255,255,255,255
2.939884901046753,4.549910068511963,6.521317005157471,255,255,255,255
2.935203790664673,4.591835021972656,6.566352844238281,255,255,255,255
2.930328845977783,4.633760929107666,6.611388206481934,255,255,255,255
2.9258639812469482,4.671562194824219,6.660062789916992,255,255,255,255
2.863924264907837,4.675685882568359,6.656424045562744,255,255,255,255
2.8019843101501465,4.675685882568359,6.656424045562744,255,255,255,255
2.740044355392456,4.675685882568359,6.656424045562744,255,255,255,255
2.920823574066162,4.634799003601074,6.6101179122924805,255,255,255,255
2.9146921634674072,4.591733932495117,6.566793918609619,255,255,255,255
2.0087826251983643,4.658192157745361,6.691157817840576,255,255,255,255
2.0022435188293457,4.7002692222595215,6.749083995819092,255,255,255,255
1.996768832206726,4.742345809936523,6.807010173797607,255,255,255,255
1.996768832206726,4.637193202972412,6.689435958862305,255,255,255,255
2.058708667755127,4.636478900909424,6.688694000244141,255,255,255,255
2.1206483840942383,4.637596130371094,6.689855098724365,255,255,255,255
2.191488742828369,4.646602153778076,6.699211120605469,255,255,255,255
2.1896657943725586,4.696834087371826,6.751393795013428,255,255,255,255
2.1854135990142822,4.74706506729126,6.8035759925842285,255,255,255,255
2.1825873851776123,4.801220893859863,6.857999801635742,255,255,255,255
2.1206483840942383,4.797296047210693,6.855758190155029,255,255,255,255
2.058708667755127,4.797296047210693,6.855758190155029,255,255,255,255
1.996768832206726,4.797296047210693,6.855758190155029,255,255,255,255
2.1825873851776123,4.640350818634033,6.69347620010376,255,255,255,255
2.2445273399353027,4.631991863250732,6.68501615524292,255,255,255,255
2.306467294692993,4.624921798706055,6.677862167358398,255,255,255,255
2.3852386474609375,4.640350818634033,6.69347620010376,255,255,255,255
2.381164789199829,4.681550025939941,6.735167026519775,255,255,255,255
2.376739263534546,4.722747802734375,6.776857852935791,255,255,255,255
2.3723702430725098,4.763946056365967,6.818550109863281,255,255,255,255
2.3684070110321045,4.802684783935547,6.85908317565918,255,255,255,255
2.306467294692993,4.805144786834717,6.860240936279297,255,255,255,255
2.2445273399353027,4.805144786834717,6.860240936279297,255,255,255,255
2.1825873851776123,4.763946056365967,6.818550109863281,255,255,255,255
2.1825873851776123,4.722747802734375,6.776857852935791,255,255,255,255
2.1825873851776123,4.681550025939941,6.735167026519775,255,255,255,255
2.3684070110321045,4.628872871398926,6.678165912628174,255,255,255,255
2.4303460121154785,4.628341197967529,6.677608013153076,255,255,255,255
2.492285966873169,4.628832817077637,6.678123950958252,255,255,255,255
2.5742452144622803,4.645538806915283,6.695650100708008,255,255,255,255
2.5648884773254395,4.69710111618042,6.749742031097412,255,255,255,255
2.5575499534606934,4.748663902282715,6.803833961486816,255,255,255,255
2.5542256832122803,4.800226211547852,6.857925891876221,255,255,255,255
2.492285966873169,4.800226211547852,6.857925891876221,255,255,255,255
2.4303460121154785,4.800226211547852,6.857925891876221,255,255,255,255
2.362403631210327,4.748663902282715,6.803833961486816,255,255,255,255
2.354771614074707,4.69710111618042,6.749742031097412,255,255,255,255
2.5542256832122803,4.64838981628418,6.678110122680664,255,255,255,255
2.6161656379699707,4.647647857666016,6.677093982696533,255,255,255,255
2.6781046390533447,4.649612903594971,6.679784774780273,255,255,255,255
2.7466399669647217,4.658048152923584,6.691342830657959,255,255,255,255
2.7381482124328613,4.692925930023193,6.756056785583496,255,255,255,255
2.738097906112671,4.738577842712402,6.809415817260742,255,255,255,255
2.740044355392456,4.785545825958252,6.861902236938477,255,255,255,255
2.6781046390533447,4.784592151641846,6.8647308349609375,255,255,255,255
2.6161656379699707,4.784592151641846,6.8647308349609375,255,255,255,255
2.5542256832122803,4.789004802703857,6.865383148193359,255,255,255,255
2.5502259731292725,4.742411136627197,6.806934833526611,255,255,255,255
2.546355962753296,4.700229167938232,6.749138832092285,255,255,255,255
2.740044355392456,4.646883964538574,6.705144882202148,255,255,255,255
2.8019843101501465,4.646883964538574,6.705144882202148,255,255,255,255
2.863924264907837,4.646883964538574,6.705144882202148,255,255,255,255
2.925863265991211,4.646883964538574,6.705144882202148,255,255,255,255
2.925863265991211,4.696006774902344,6.754067897796631,255,255,255,255
2.925863265991211,4.7451300621032715,6.802989959716797,255,255,255,255
2.925863265991211,4.794252872467041,6.851912975311279,255,255,255,255
2.863924264907837,4.794252872467041,6.851912975311279,255,255,255,255
2.8019843101501465,4.794252872467041,6.851912975311279,255,255,255,255
2.740044355392456,4.794252872467041,6.851912975311279,255,255,255,255
2.0124404430389404,4.772335052490234,6.8965840339660645,255,255,255,255
2.007878541946411,4.81220817565918,6.9424638748168945,255,255,255,255
2.0025932788848877,4.852080821990967,6.988344192504883,255,255,255,255
1.996768832206726,4.891953945159912,7.034224033355713,255,255,255,255
1.996768832206726,4.749334812164307,6.8769330978393555,255,255,255,255
2.058708667755127,4.747799873352051,6.875280857086182,255,255,255,255
2.1206483840942383,4.750918865203857,6.878636837005615,255,255,255,255
2.1825873851776123,4.759419918060303,6.88984489440918,255,255,255,255
2.1825873851776123,4.80736780166626,6.940584182739258,255,255,255,255
2.1825873851776123,4.855315208435059,6.991322994232178,255,255,255,255
2.1825873851776123,4.903262138366699,7.042061805725098,255,255,255,255
2.1206483840942383,4.905302047729492,7.0447540283203125,255,255,255,255
2.058708667755127,4.905302047729492,7.0447540283203125,255,255,255,255
1.996768832206726,4.905302047729492,7.0447540283203125,255,255,255,255
2.2445273399353027,4.760595798492432,6.893172264099121,255,255,255,255
2.306467294692993,4.756997108459473,6.889430999755859,255,255,255,255
2.3737316131591797,4.760595798492432,6.893172264099121,255,255,255,255
2.3718183040618896,4.807472229003906,6.941904067993164,255,255,255,255
2.3705012798309326,4.854347229003906,6.990636825561523,255,255,255,255
2.3684070110321045,4.901223182678223,7.039370059967041,255,255,255,255
2.306467294692993,4.901223182678223,7.039370059967041,255,255,255,255
2.2445273399353027,4.901223182678223,7.039370059967041,255,255,255,255
2.3684070110321045,4.757160186767578,6.871315002441406,255,255,255,255
2.4303460121154785,4.757160186767578,6.871315002441406,255,255,255,255
2.492285966873169,4.757160186767578,6.871315002441406,255,255,255,255
2.557743549346924,4.758076190948486,6.873819828033447,255,255,255,255
2.5596697330474854,4.793789863586426,6.918977737426758,255,255,255,255
2.5576975345611572,4.830419063568115,6.966640949249268,255,255,255,255
2.555778980255127,4.8670477867126465,7.014305114746094,255,255,255,255
2.3677921295166016,4.8670477867126465,7.014305114746094,255,255,255,255
2.3684070110321045,4.830419063568115,6.966640949249268,255,255,255,255
2.3684070110321045,4.793789863586426,6.918977737426758,255,255,255,255
2.6161656379699707,4.763483047485352,6.881865978240967,255,255,255,255
2.6781046390533447,4.770474910736084,6.890491962432861,255,255,255,255
2.740044355392456,4.770474910736084,6.890491962432861,255,255,255,255
2.740044355392456,4.811200141906738,6.940731048583984,255,255,255,255
2.740044355392456,4.851924896240234,6.990970134735107,255,255,255,255
2.740044355392456,4.892650127410889,7.0412092208862305,255,255,255,255
2.6781046390533447,4.892650127410889,7.0412092208862305,255,255,255,255
2.6161656379699707,4.892650127410889,7.0412092208862305,255,255,255,255
2.5542256832122803,4.892650127410889,7.0412092208862305,255,255,255,255
2.5494301319122314,4.851924896240234,6.990970134735107,255,255,255,255
2.544498920440674,4.811200141906738,6.940731048583984,255,255,255,255
2.740044355392456,4.742392063140869,6.860433101654053,255,255,255,255
2.8019843101501465,4.742085933685303,6.860072135925293,255,255,255,255
2.863924264907837,4.7483649253845215,6.867467880249023,255,255,255,255
2.925863265991211,4.75422477722168,6.874370098114014,255,255,255,255
2.925863265991211,4.792992115020752,6.9200310707092285,255,255,255,255
2.925863265991211,4.831759929656982,6.965692043304443,255,255,255,255
2.925863265991211,4.8705267906188965,7.011353015899658,255,255,255,255
2.736316680908203,4.8705267906188965,7.011353015899658,255,255,255,255
2.73295259475708,4.831759929656982,6.965692043304443,255,255,255,255
2.7300403118133545,4.792992115020752,6.9200310707092285,255,255,255,255
2.925863265991211,4.762104034423828,6.887393951416016,255,255,255,255
2.9878029823303223,4.762104034423828,6.887393951416016,255,255,255,255
2.925863265991211,4.900304794311523,7.04730224609375,255,255,255,255
2.925863265991211,4.853190898895264,6.9930572509765625,255,255,255,255
2.925863265991211,4.807648181915283,6.940225124359131,255,255,255,255
2.925863265991211,4.798985004425049,6.94769287109375,255,255,255,255
2.925863265991211,4.8445281982421875,7.000524997711182,255,255,255,255
2.925863265991211,4.891744136810303,7.0546698570251465,255,255,255,255
2.9878029823303223,4.890071868896484,7.053357124328613,255,255,255,255
2.9878029823303223,4.75344181060791,6.894861221313477,255,255,255,255
2.925863265991211,4.75344181060791,6.894861221313477,255,255,255,255
2.9878029823303223,4.898734092712402,7.045888900756836,255,255,255,255
2.7300403118133545,4.784274101257324,6.927433013916016,255,255,255,255
2.73295259475708,4.823040962219238,6.9730939865112305,255,255,255,255
2.736316680908203,4.861808776855469,7.018754959106445,255,255,255,255
2.925863265991211,4.861808776855469,7.018754959106445,255,255,255,255
2.925863265991211,4.823040962219238,6.9730939865112305,255,255,255,255
2.925863265991211,4.784274101257324,6.927433013916016,255,255,255,255
2.925863265991211,4.74550724029541,6.881772041320801,255,255,255,255
2.863924264907837,4.739646911621094,6.8748698234558105,255,255,255,255
2.8019843101501465,4.733366966247559,6.86747407913208,255,255,255,255
2.740044355392456,4.733674049377441,6.86783504486084,255,255,255,255
2.544498920440674,4.802316188812256,6.947933197021484,255,255,255,255
2.5494301319122314,4.843040943145752,6.998171806335449,255,255,255,255
2.5542256832122803,4.883766174316406,7.048410892486572,255,255,255,255
2.6161656379699707,4.883766174316406,7.048410892486572,255,255,255,255
2.6781046390533447,4.883766174316406,7.048410892486572,255,255,255,255
2.740044355392456,4.883766174316406,7.048410892486572,255,255,255,255
2.740044355392456,4.843040943145752,6.998171806335449,255,255,255,255
2.740044355392456,4.802316188812256,6.947933197021484,255,255,255,255
2.740044355392456,4.761590957641602,6.897694110870361,255,255,255,255
2.6781046390533447,4.761590957641602,6.897694110870361,255,255,255,255
2.6161656379699707,4.754599094390869,6.889068126678467,255,255,255,255
2.557743549346924,4.749100208282471,6.8809051513671875,255,255,255,255
2.3684070110321045,4.784721851348877,6.925947189331055,255,255,255,255
2.3684070110321045,4.821351051330566,6.973609924316406,255,255,255,255
2.3677921295166016,4.857979774475098,7.021274089813232,255,255,255,255
2.555778980255127,4.857979774475098,7.021274089813232,255,255,255,255
2.5576975345611572,4.821351051330566,6.973609924316406,255,255,255,255
2.5596697330474854,4.784721851348877,6.925947189331055,255,255,255,255
2.492285966873169,4.748092174530029,6.878283977508545,255,255,255,255
2.4303460121154785,4.748092174530029,6.878283977508545,255,255,255,255
2.3684070110321045,4.748092174530029,6.878283977508545,255,255,255,255
2.1825873851776123,4.799057960510254,6.948441028594971,255,255,255,255
2.1825873851776123,4.8470048904418945,6.999179840087891,255,255,255,255
2.1825873851776123,4.894952774047852,7.049919128417969,255,255,255,255
2.2445273399353027,4.892981052398682,7.047297954559326,255,255,255,255
2.306467294692993,4.892981052398682,7.047297954559326,255,255,255,255
2.368379831314087,4.89406681060791,7.048899173736572,255,255,255,255
2.3705012798309326,4.846105098724365,6.998565196990967,255,255,255,255
2.3718183040618896,4.799229145050049,6.949832916259766,255,255,255,255
2.3737316131591797,4.752354145050049,6.901100158691406,255,255,255,255
2.306467294692993,4.748754978179932,6.8973588943481445,255,255,255,255
2.2445273399353027,4.752354145050049,6.901100158691406,255,255,255,255
2.1825873851776123,4.751110076904297,6.897702217102051,255,255,255,255
1.996768832206726,4.896924018859863,7.052538871765137,255,255,255,255
2.058708667755127,4.896924018859863,7.052538871765137,255,255,255,255
2.1206483840942383,4.896924018859863,7.052538871765137,255,255,255,255
2.1206483840942383,4.7425408363342285,6.886422157287598,255,255,255,255
2.058708667755127,4.739422798156738,6.883066177368164,255,255,255,255
1.996768832206726,4.740958213806152,6.88471794128418,255,255,255,255
1.996768832206726,4.883321762084961,7.041726112365723,255,255,255,255
2.0011370182037354,4.844563007354736,6.996832847595215,255,255,255,255
2.007878541946411,4.8035759925842285,6.949965953826904,255,255,255,255
2.0124404430389404,4.763702869415283,6.904086112976074,255,255,255,255
2.8019843101501465,4.786181926727295,6.860015869140625,255,255,255,255
2.863924264907837,4.786181926727295,6.860015869140625,255,255,255,255
2.925863265991211,4.786181926727295,6.860015869140625,255,255,255,255
2.925863265991211,4.737059116363525,6.811093807220459,255,255,255,255
2.925863265991211,4.687935829162598,6.762170791625977,255,255,255,255
2.925863265991211,4.638813018798828,6.713249206542969,255,255,255,255
2.863924264907837,4.638813018798828,6.713249206542969,255,255,255,255
2.8019843101501465,4.638813018798828,6.713249206542969,255,255,255,255
2.740044355392456,4.638813018798828,6.713249206542969,255,255,255,255
2.546355962753296,4.690990924835205,6.755880832672119,255,255,255,255
2.5502259731292725,4.73317289352417,6.813676834106445,255,255,255,255
2.5542256832122803,4.775353908538818,6.8714728355407715,255,255,255,255
2.6161656379699707,4.775353908538818,6.8714728355407715,255,255,255,255
2.6781046390533447,4.775353908538818,6.8714728355407715,255,255,255,255
2.740044355392456,4.775353908538818,6.8714728355407715,255,255,255,255
2.7466399669647217,4.648809909820557,6.698084831237793,255,255,255,255
2.6781046390533447,4.640375137329102,6.686527252197266,255,255,255,255
2.6161656379699707,4.6384100914001465,6.683835983276367,255,255,255,255
2.5542256832122803,4.6391520500183105,6.684852123260498,255,255,255,255
2.354771614074707,4.688823223114014,6.757633209228516,255,255,255,255
2.362403631210327,4.740385055541992,6.81172513961792,255,255,255,255
2.3684070110321045,4.794478893280029,6.867048263549805,255,255,255,255
2.4303460121154785,4.791947841644287,6.865817070007324,255,255,255,255
2.492285966873169,4.791947841644287,6.865817070007324,255,255,255,255
2.5575499534606934,4.740385055541992,6.81172513961792,255,255,255,255
2.5648884773254395,4.688823223114014,6.757633209228516,255,255,255,255
2.5742452144622803,4.637260913848877,6.703540802001953,255,255,255,255
2.492285966873169,4.6205549240112305,6.6860151290893555,255,255,255,255
2.4303460121154785,4.620062828063965,6.68549919128418,255,255,255,255
2.3684070110321045,4.6205949783325195,6.686057090759277,255,255,255,255
2.1825873851776123,4.673415184020996,6.7432050704956055,255,255,255,255
2.1825873851776123,4.71461296081543,6.7848968505859375,255,255,255,255
